-4.5401 -77.1072 0.0005
-4.5401 -77.1071 0.0005
-4.5401 -77.1071 0.0005
-4.5401 -77.1071 0.0005
-4.5401 -77.1071 0.0005
-4.5401 -77.1071 0.0005
-4.5401 -77.1072 0.0005
-4.5401 -77.1072 0.0005
-4.5401 -77.1072 0.0005
-4.5401 -77.1071 0.0005
-4.5401 -77.1071 0.0005
-4.5401 -77.1071 0.0005
-4.5401 -77.1072 0.0005
-4.5401 -77.1072 0.0005
-4.5401 -77.1071 0.0005
-4.5401 -77.1071 0.0005
-4.5401 -77.1071 0.0005
-4.5401 -77.1071 0.0005
-4.5401 -77.1071 0.0005
-4.5401 -77.1071 0.0005
-4.5407 -77.1068 0.0005
-4.5427 -77.1053 0.0005
-4.5544 -77.0951 0.0005
-4.6853 -76.9797 0.0005
-4.9717 -76.7277 0.0005
-5.5248 -76.2053 0.0005
-6.0762 -75.6047 0.0005
-6.6711 -75.0060 0.0004
-7.2500 -74.3851 0.0004
-8.1088 -73.3497 0.0004
-8.8380 -72.4965 0.0004
-9.6541 -71.4370 0.0004
-10.4663 -70.4475 0.0004
-11.2723 -69.3788 0.0004
-12.2304 -68.1902 0.0004
-13.2085 -66.9431 0.0004
-13.9436 -66.0303 0.0004
-14.6196 -65.1846 0.0004
-15.6632 -63.9345 0.0003
-16.6502 -62.8979 0.0003
-17.5902 -61.8569 0.0003
-18.6237 -60.8269 0.0003
-19.7273 -59.8287 0.0003
-20.5218 -59.2592 0.0003
-21.5635 -58.5397 0.0003
-22.7639 -57.7531 0.0003
-23.8194 -57.0008 0.0003
-25.0867 -56.1678 0.0003
-25.9004 -55.7153 0.0003
-27.0324 -55.1943 0.0003
-28.2288 -54.6708 0.0003
-29.4886 -54.2241 0.0003
-30.6452 -53.7636 0.0003
-31.8002 -53.3197 0.0003
-33.2105 -52.7790 0.0003
-34.6176 -52.3787 0.0003
-36.1181 -51.9464 0.0003
-37.3983 -51.5298 0.0003
-38.5833 -51.1389 0.0003
-40.0772 -50.6363 0.0003
-41.4671 -50.1381 0.0003
-42.7338 -49.5641 0.0003
-44.1709 -48.7879 0.0003
-45.0999 -48.1102 0.0003
-45.8836 -47.3718 0.0003
-46.9134 -46.3643 0.0003
-47.8567 -45.5608 0.0003
-48.7977 -44.7001 0.0003
-49.6251 -43.8726 0.0003
-50.3315 -43.0852 0.0003
-51.0588 -42.0237 0.0003
-51.5473 -41.0047 0.0003
-52.0249 -39.9499 0.0003
-52.7092 -38.7437 0.0003
-53.2209 -37.8908 0.0003
-53.7053 -36.9179 0.0003
-54.1437 -35.6166 0.0003
-54.3456 -34.2735 0.0003
-54.3083 -33.1372 0.0003
-54.1490 -32.2114 0.0003
-53.7884 -31.0510 0.0003
-53.4444 -30.0758 0.0003
-53.1686 -29.1080 0.0003
-53.0385 -27.9982 0.0003
-52.9383 -27.2049 0.0003
-52.8197 -26.3785 0.0003
-52.6516 -25.1581 0.0003
-52.4677 -23.7944 0.0003
-52.2830 -22.4299 0.0003
-52.1824 -21.2031 0.0002
-52.1101 -20.0584 0.0002
-52.0171 -18.6186 0.0002
-52.0756 -17.2810 0.0002
-52.3345 -15.8918 0.0002
-52.6060 -14.8347 0.0002
-52.9669 -13.8605 0.0002
-53.4661 -12.5923 0.0002
-53.8567 -11.4029 0.0002
-54.2641 -10.0498 0.0002
-54.8057 -8.6545 0.0002
-55.2643 -7.8058 0.0002
-55.8526 -6.7612 0.0002
-56.4996 -5.6445 0.0003
-57.0866 -4.5788 0.0003
-57.7655 -3.5748 0.0003
-58.3865 -2.7209 0.0003
-58.9352 -1.8617 0.0003
-59.7007 -0.6656 0.0003
-60.5076 0.4089 0.0003
-61.5890 1.5741 0.0003
-62.4739 2.6069 0.0003
-63.2206 3.5368 0.0003
-64.3037 4.9021 0.0003
-65.4301 6.3212 0.0003
-66.6764 7.8878 0.0004
-67.7926 9.2921 0.0004
-68.9437 10.7416 0.0004
-70.4399 12.6801 0.0004
-71.7777 14.3929 0.0004
-73.2949 16.4043 0.0004
-74.2857 17.7902 0.0005
-75.4415 19.3567 0.0005
-76.8593 21.2913 0.0005
-78.3608 23.2811 0.0005
-79.5652 24.8576 0.0005
-80.8241 26.5258 0.0006
-82.2972 28.6777 0.0006
-83.7068 30.7102 0.0006
-85.1288 32.8370 0.0007
-86.3307 34.9779 0.0007
-87.3690 36.7409 0.0007
-88.4312 38.5158 0.0007
-89.7039 40.6518 0.0008
-90.7459 42.6286 0.0008
-92.0314 44.9887 0.0008
-93.0259 46.8811 0.0009
-93.7702 48.6721 0.0009
-94.4778 50.5352 0.0009
-95.3052 52.6324 0.0009
-96.1506 54.7442 0.0010
-97.0326 57.0355 0.0010
-97.5915 58.9480 0.0010
-98.1312 60.9159 0.0010
-98.7339 63.3405 0.0011
-99.2306 65.3220 0.0011
-99.7251 67.5507 0.0011
-100.2135 69.8283 0.0012
-100.5752 72.1729 0.0012
-101.0013 74.6146 0.0012
-101.2441 76.3867 0.0013
-101.3476 78.6342 0.0013
-101.4193 80.7967 0.0013
-101.4351 83.0213 0.0013
-101.4995 85.2352 0.0014
-101.5619 87.4142 0.0014
-101.5872 90.0499 0.0014
-101.4603 91.6604 0.0015
-101.2724 93.6129 0.0015
-101.1365 95.6454 0.0015
-101.0558 98.0150 0.0016
-100.9858 100.0642 0.0016
-100.8571 102.0066 0.0016
-100.6083 103.7407 0.0016
-100.2536 106.1467 0.0017
-99.9839 108.2765 0.0017
-99.6060 110.5465 0.0017
-99.3201 112.4441 0.0018
-98.9877 114.2769 0.0018
-98.5121 116.6284 0.0018
-98.0435 118.5418 0.0019
-97.4623 120.5948 0.0019
-96.9064 122.3586 0.0019
-96.2467 124.6253 0.0019
-95.5687 126.7778 0.0020
-95.0029 128.4432 0.0020
-94.2647 130.1294 0.0020
-93.2814 132.3695 0.0021
-92.3666 134.2536 0.0021
-91.4038 136.1999 0.0021
-90.4447 137.8943 0.0021
-89.4655 139.7191 0.0022
-88.5684 141.2728 0.0022
-87.7693 142.7047 0.0022
-86.6042 144.5687 0.0022
-85.5283 146.1406 0.0023
-84.3278 147.6364 0.0023
-83.0704 149.2970 0.0023
-81.8727 150.8181 0.0023
-80.9163 152.0689 0.0023
-80.0176 153.2398 0.0023
-78.6219 154.9547 0.0024
-77.4110 156.4633 0.0024
-76.0694 157.9072 0.0024
-74.7831 159.2853 0.0024
-73.4193 160.7593 0.0025
-72.2248 161.9200 0.0025
-71.0218 163.1545 0.0025
-69.6873 164.4463 0.0025
-68.4313 165.6854 0.0025
-66.9851 167.1006 0.0025
-65.4029 168.5428 0.0026
-63.8428 169.9719 0.0026
-62.7486 170.8524 0.0026
-61.2837 171.9849 0.0026
-59.7237 173.0369 0.0026
-58.2050 174.1199 0.0026
-56.6445 175.2482 0.0027
-55.0945 176.3228 0.0027
-53.5400 177.3743 0.0027
-52.3156 178.2145 0.0027
-50.8152 179.1406 0.0027
-49.3354 180.0376 0.0027
-47.7388 180.9683 0.0028
-45.9450 181.9106 0.0028
-44.7058 182.5210 0.0028
-43.3609 183.1108 0.0028
-41.6556 183.9254 0.0028
-40.1539 184.5941 0.0028
-38.4141 185.3745 0.0028
-36.6853 186.1374 0.0028
-34.8442 186.8505 0.0028
-33.0135 187.5574 0.0029
-31.5663 188.1227 0.0029
-30.1443 188.6863 0.0029
-28.3457 189.4021 0.0029
-26.4638 190.1867 0.0029
-24.6629 190.9775 0.0029
-23.3027 191.6873 0.0029
-21.9946 192.4371 0.0029
-20.2450 193.5753 0.0030
-18.7823 194.4561 0.0030
-17.2661 195.4040 0.0030
-15.4848 196.5482 0.0031
-13.9675 197.7373 0.0031
-12.7784 198.8089 0.0031
-11.7557 199.8166 0.0032
-10.3117 201.3336 0.0032
-9.0375 202.5581 0.0032
-7.6185 203.9135 0.0033
-6.2572 205.3627 0.0033
-4.9659 206.7714 0.0034
-3.8696 207.9805 0.0034
-2.9038 209.1839 0.0034
-1.7231 210.7942 0.0035
-0.7707 212.2651 0.0035
0.4537 214.0029 0.0036
1.1930 215.1878 0.0036
2.0042 216.5156 0.0037
2.8888 218.1842 0.0037
3.6046 219.5931 0.0038
4.2992 221.0438 0.0038
5.0746 222.8354 0.0039
5.6134 224.1254 0.0040
6.1450 225.5381 0.0040
6.7200 227.0922 0.0041
7.2839 228.6071 0.0041
7.7503 230.1560 0.0042
8.1133 231.7111 0.0042
8.3216 233.3174 0.0043
8.6272 235.0619 0.0044
8.8739 236.2835 0.0044
9.2092 237.9768 0.0045
9.5066 239.7120 0.0045
9.8328 241.6146 0.0046
10.0760 243.2699 0.0047
10.2402 245.2544 0.0047
10.3488 246.5944 0.0048
10.4978 248.0353 0.0048
10.5517 249.9023 0.0049
10.4125 251.6943 0.0050
10.3284 253.2423 0.0051
10.2678 254.5390 0.0051
10.2106 256.4126 0.0052
10.1387 258.4658 0.0053
10.0801 260.3021 0.0053
9.9499 262.0672 0.0054
9.8686 263.4426 0.0055
9.7498 265.5962 0.0056
9.6752 267.3971 0.0056
9.5833 269.2811 0.0057
9.4908 271.1582 0.0058
9.3947 273.1155 0.0059
9.3158 274.9861 0.0060
9.2415 276.6632 0.0060
9.1406 278.9261 0.0061
9.0487 280.9946 0.0062
8.9494 283.2311 0.0063
8.8618 285.1953 0.0064
8.7817 286.9927 0.0065
8.6728 289.4354 0.0066
8.5806 291.5026 0.0067
8.4686 294.0132 0.0068
8.3632 296.3776 0.0069
8.2944 297.9215 0.0070
8.2026 299.9797 0.0071
8.0965 302.3276 0.0072
7.9896 304.6393 0.0073
7.8980 306.5862 0.0074
7.8184 308.2740 0.0075
7.7029 310.7065 0.0076
7.6171 312.4227 0.0077
7.5564 314.0958 0.0078
7.5868 315.9180 0.0079
7.6080 317.9372 0.0080
7.6106 319.2653 0.0080
7.6014 320.8337 0.0081
7.6327 322.6178 0.0082
7.6868 324.3888 0.0083
7.7550 326.3456 0.0084
7.8329 328.2932 0.0085
7.9737 329.6824 0.0086
8.1043 331.3264 0.0086
8.2306 333.0149 0.0087
8.4146 334.5885 0.0088
8.6425 336.4552 0.0089
8.7954 337.8956 0.0090
8.9507 339.3978 0.0091
9.2092 341.3210 0.0092
9.4736 343.1598 0.0093
9.7667 345.1136 0.0094
10.0863 346.5767 0.0095
10.3736 348.0870 0.0095
10.8049 350.0347 0.0096
11.1803 351.7253 0.0097
11.7129 353.5980 0.0098
12.0909 354.8839 0.0099
12.6372 356.3548 0.0100
13.3123 358.1689 0.0101
13.9833 359.8600 0.0102
14.5963 361.4791 0.0103
15.2350 363.2082 0.0104
15.8724 364.9398 0.0105
16.7754 367.0416 0.0106
17.4017 368.4974 0.0107
18.1692 370.1793 0.0108
19.0287 371.8476 0.0109
20.0897 373.7770 0.0110
20.9264 375.2553 0.0111
21.9079 376.9399 0.0112
22.7989 378.4135 0.0113
23.5062 379.6148 0.0114
24.6883 381.3677 0.0115
25.6851 382.8045 0.0116
26.8652 384.4193 0.0117
28.0868 386.1760 0.0118
29.0817 387.6141 0.0119
30.0602 389.0285 0.0120
31.3324 390.8668 0.0121
32.3111 392.3812 0.0122
33.4068 394.1540 0.0123
34.5566 396.0695 0.0124
35.3248 397.3549 0.0125
36.2430 399.0325 0.0126
37.2750 400.8930 0.0127
38.1451 402.6420 0.0129
38.8420 404.0307 0.0130
39.4646 405.3853 0.0130
40.3733 407.3140 0.0132
41.0157 409.0458 0.0133
41.6277 410.8413 0.0134
42.1209 412.4209 0.0135
42.5738 413.7658 0.0136
43.1045 415.6968 0.0137
43.4124 417.4223 0.0138
43.5356 419.4013 0.0140
43.6523 420.7112 0.0141
43.8271 422.0731 0.0142
44.0701 423.9002 0.0143
44.2822 425.7670 0.0144
44.3959 427.8703 0.0145
44.5204 429.3937 0.0147
44.6666 431.0937 0.0148
44.8081 433.2335 0.0149
44.8820 435.2245 0.0151
44.8965 437.1445 0.0152
44.9021 438.9232 0.0153
44.8748 440.3948 0.0154
44.8360 442.6736 0.0156
44.7718 444.4820 0.0157
44.6450 446.4772 0.0158
44.5594 448.4057 0.0160
44.4779 450.2845 0.0161
44.3955 452.2152 0.0162
44.3285 453.8971 0.0164
44.2823 456.4262 0.0165
44.2230 458.5806 0.0167
44.1564 460.8072 0.0168
44.0897 463.0084 0.0170
44.0334 464.8974 0.0171
43.9825 466.5983 0.0173
43.9075 469.0421 0.0174
43.8403 471.2787 0.0176
43.7686 473.5700 0.0178
43.6904 476.0823 0.0180
43.6214 478.2981 0.0181
43.5535 480.4085 0.0183
43.4696 483.0189 0.0185
43.3841 485.6094 0.0187
43.3031 488.0792 0.0189
43.2120 490.8107 0.0191
43.1192 493.5557 0.0193
43.0446 495.8660 0.0195
42.9722 498.1549 0.0197
42.8801 500.8863 0.0199
42.7877 503.4971 0.0201
42.6894 506.3954 0.0203
42.6099 508.8076 0.0205
42.5527 510.5436 0.0206
42.4915 512.4046 0.0208
42.4306 514.2522 0.0209
42.3333 515.7356 0.0211
42.1850 517.2400 0.0212
42.0992 518.4563 0.0213
41.9495 519.8109 0.0214
41.6614 521.2860 0.0215
41.4077 522.8376 0.0216
41.1914 524.3405 0.0218
40.8447 526.0959 0.0219
40.4130 527.9809 0.0220
40.0234 529.3852 0.0222
39.5540 530.8551 0.0223
38.9153 532.6006 0.0224
38.2776 534.3708 0.0226
37.8058 535.7641 0.0227
37.1496 537.7190 0.0228
36.4094 539.7346 0.0230
35.7159 541.5603 0.0232
34.9886 543.1807 0.0233
34.2671 544.6174 0.0234
33.2644 546.5461 0.0236
32.3772 548.1791 0.0237
31.2727 550.0348 0.0239
30.0979 551.8495 0.0240
29.0466 553.3413 0.0241
28.0414 554.6863 0.0243
26.7296 556.4650 0.0244
25.3025 558.2877 0.0246
24.2189 559.5083 0.0247
23.1370 560.6127 0.0248
21.6052 562.1769 0.0249
20.2457 563.5389 0.0250
18.7353 564.8743 0.0251
17.1962 566.2255 0.0252
15.8400 567.2968 0.0253
14.3382 568.5236 0.0254
13.0275 569.6198 0.0255
11.6855 570.8358 0.0256
10.0663 572.2697 0.0258
8.3896 573.7424 0.0259
6.6733 575.3858 0.0260
4.9965 577.0317 0.0262
3.8213 578.3196 0.0263
2.4838 579.8721 0.0264
1.0896 581.6813 0.0266
-0.1768 583.2849 0.0268
-1.4820 585.0092 0.0269
-2.8136 586.7920 0.0271
-4.0125 588.5143 0.0272
-5.2849 590.5025 0.0274
-6.2588 592.1199 0.0276
-7.2973 593.8562 0.0277
-8.2916 595.8758 0.0279
-9.4087 598.0633 0.0281
-10.5261 600.1571 0.0283
-11.5552 602.0754 0.0285
-12.6780 604.4671 0.0287
-13.4849 606.4057 0.0289
-14.2937 608.2362 0.0291
-15.4147 610.7511 0.0293
-16.4001 612.9748 0.0296
-17.2382 615.2894 0.0298
-18.1533 618.0108 0.0301
-19.0605 620.5850 0.0303
-19.5628 622.2738 0.0305
-20.0092 624.6125 0.0307
-20.2943 626.9350 0.0309
-20.6812 629.4050 0.0312
-21.0855 631.9228 0.0314
-21.2478 633.8295 0.0316
-21.1762 636.0126 0.0318
-20.8972 638.4421 0.0321
-20.4822 640.8515 0.0323
-20.0695 642.6797 0.0325
-19.6465 644.9105 0.0327
-19.3173 647.2985 0.0330
-19.1839 649.7993 0.0332
-19.1742 652.2574 0.0335
-19.1114 654.7882 0.0337
-19.0457 656.6977 0.0339
-19.0572 658.6881 0.0341
-19.1567 661.4698 0.0344
-19.3313 663.8435 0.0347
-19.5869 666.0835 0.0349
-19.8981 668.5896 0.0352
-20.1893 671.2094 0.0355
-20.4637 673.1466 0.0357
-20.8042 675.4559 0.0359
-21.2917 677.9218 0.0362
-21.7989 680.2528 0.0364
-22.3783 682.8713 0.0367
-22.9343 685.0329 0.0369
-23.4654 686.9438 0.0371
-24.2934 689.4334 0.0374
-24.9934 691.5396 0.0377
-25.7444 693.8478 0.0379
-26.5958 696.2955 0.0382
-27.4952 698.6969 0.0384
-28.3420 700.9807 0.0387
-29.2797 703.1108 0.0389
-30.1780 704.9662 0.0391
-31.0066 706.6172 0.0393
-32.1507 709.0213 0.0396
-33.1419 711.1259 0.0398
-34.3034 713.3126 0.0401
-35.5008 715.4572 0.0403
-36.8577 717.7304 0.0406
-37.9069 719.5263 0.0408
-38.9215 721.1574 0.0410
-40.3057 723.3414 0.0413
-41.6596 725.2357 0.0415
-43.1667 727.2233 0.0417
-44.5045 729.0114 0.0419
-46.1402 731.0372 0.0422
-47.3345 732.4533 0.0424
-48.7795 733.9941 0.0425
-50.2353 735.5784 0.0427
-51.8688 737.2794 0.0430
-53.3837 738.8611 0.0431
-55.1206 740.5288 0.0434
-56.3914 741.7990 0.0435
-57.5819 742.9936 0.0437
-59.2090 744.7675 0.0439
-60.7585 746.4259 0.0441
-62.0749 748.0167 0.0443
-63.6328 749.9196 0.0445
-64.6180 751.1736 0.0447
-65.6785 752.4723 0.0449
-67.1215 754.2303 0.0451
-68.5130 756.0566 0.0453
-69.7390 757.6866 0.0455
-70.8670 759.1804 0.0457
-72.1141 761.1204 0.0460
-73.2300 762.9235 0.0462
-74.2931 764.7573 0.0464
-75.4779 766.7197 0.0467
-76.3659 768.1816 0.0469
-77.3984 769.8818 0.0471
-78.5931 772.0571 0.0474
-79.6579 773.9735 0.0476
-80.7297 775.8820 0.0478
-81.7687 777.9441 0.0481
-82.8923 780.1982 0.0484
-83.7267 782.1720 0.0487
-84.4407 783.8721 0.0489
-85.1199 785.5939 0.0491
-85.9767 787.6640 0.0494
-86.7987 789.7614 0.0496
-87.6859 792.1138 0.0499
-88.5375 794.3158 0.0502
-89.2596 796.5325 0.0505
-89.8150 798.3054 0.0507
-90.2864 800.0523 0.0510
-90.9894 802.4809 0.0513
-91.5319 804.6763 0.0516
-92.0908 807.0194 0.0519
-92.4236 808.6611 0.0521
-92.8238 810.4455 0.0523
-93.2758 812.8272 0.0526
-93.6515 814.8570 0.0529
-93.9287 816.9480 0.0532
-94.1795 819.1298 0.0535
-94.3799 820.9082 0.0537
-94.5410 822.7896 0.0539
-94.7220 824.7777 0.0542
-94.8413 826.8643 0.0545
-94.9399 828.7648 0.0547
-94.9188 830.8857 0.0550
-94.8490 833.0357 0.0553
-94.8212 834.6469 0.0555
-94.7634 836.1878 0.0557
-94.6122 838.2719 0.0560
-94.5203 840.1263 0.0562
-94.4312 842.0166 0.0564
-94.3179 844.4420 0.0568
-94.2306 846.2941 0.0570
-94.1233 848.1702 0.0573
-93.8928 850.3986 0.0576
-93.6896 852.6058 0.0578
-93.3943 854.7487 0.0581
-93.1003 856.8520 0.0584
-92.7998 858.8780 0.0587
-92.4416 860.6555 0.0589
-92.0306 862.3392 0.0591
-91.3826 864.3718 0.0594
-90.8082 866.1589 0.0596
-90.1875 868.2711 0.0599
-89.5933 870.3181 0.0602
-88.9943 872.4064 0.0605
-88.4882 874.1650 0.0607
-87.8490 876.3706 0.0610
-87.1200 878.4256 0.0613
-86.3155 880.7080 0.0616
-85.5938 882.5873 0.0618
-84.6823 884.6812 0.0621
-84.0102 886.2099 0.0623
-82.9771 888.4320 0.0626
-82.1084 890.3841 0.0629
-81.0456 892.5937 0.0632
-80.1179 894.5203 0.0634
-79.1608 896.4992 0.0637
-77.8737 898.7127 0.0640
-76.7819 900.5886 0.0642
-75.5702 902.5022 0.0645
-74.3259 904.5028 0.0648
-72.9209 906.6568 0.0651
-71.6117 908.7109 0.0653
-70.4821 910.4826 0.0656
-69.2782 912.2699 0.0658
-67.5493 914.4160 0.0661
-66.0086 916.2891 0.0664
-64.3304 918.1199 0.0666
-62.5503 920.1308 0.0669
-60.9008 921.8542 0.0671
-59.3607 923.4688 0.0673
-57.8570 924.9007 0.0675
-55.8613 926.8796 0.0678
-54.2473 928.4877 0.0680
-52.3852 930.3451 0.0683
-50.5441 932.0213 0.0685
-48.7295 933.5967 0.0687
-46.5890 935.4345 0.0690
-44.4904 937.0149 0.0692
-42.5465 938.4754 0.0694
-41.0361 939.5940 0.0696
-39.2789 940.7949 0.0697
-37.1019 942.0713 0.0699
-34.9597 943.1837 0.0700
-32.8770 944.3503 0.0702
-30.7478 945.5614 0.0704
-28.7623 946.6995 0.0705
-26.8514 947.7937 0.0707
-24.2154 949.3045 0.0709
-21.8579 950.6579 0.0711
-19.2362 951.9383 0.0713
-16.7699 953.0195 0.0714
-13.7218 954.1233 0.0716
-11.7239 954.8664 0.0717
-9.5160 955.7131 0.0718
-6.5747 956.8386 0.0720
-3.6164 957.9668 0.0722
-0.7159 958.9203 0.0723
2.7494 959.9752 0.0725
5.1140 960.5632 0.0726
8.1038 961.2452 0.0727
10.9375 961.7298 0.0727
14.4834 962.3079 0.0728
16.9006 962.6299 0.0729
19.4504 962.9263 0.0729
22.6161 963.2443 0.0730
25.7076 963.5652 0.0731
28.5447 963.8193 0.0731
31.6413 963.9147 0.0731
34.7088 963.8354 0.0731
37.5072 963.6499 0.0731
39.8570 963.5253 0.0731
43.1682 963.3119 0.0731
46.0477 963.1390 0.0731
49.0642 962.9654 0.0731
52.6020 962.7629 0.0731
55.5947 962.5160 0.0731
58.0022 962.2764 0.0731
60.8589 961.9683 0.0731
63.8843 961.4689 0.0730
66.6822 960.9649 0.0730
70.0573 960.2425 0.0729
72.2970 959.7096 0.0728
74.5713 959.0077 0.0728
77.6703 958.0649 0.0726
80.4780 957.0511 0.0725
83.0873 956.1544 0.0724
86.0088 955.1568 0.0723
88.1152 954.4380 0.0722
90.3445 953.6253 0.0721
93.2130 952.4558 0.0720
95.7615 951.3220 0.0719
98.0550 950.2812 0.0718
100.5434 949.0669 0.0716
102.7936 947.7886 0.0715
104.6101 946.5136 0.0713
106.8749 944.5351 0.0710
108.5917 943.0152 0.0708
110.5553 941.3414 0.0706
112.7044 939.5395 0.0704
114.8329 937.5956 0.0702
116.8723 935.5783 0.0699
118.8272 933.7094 0.0697
120.5115 932.1063 0.0695
122.8530 929.7081 0.0691
124.6812 927.5432 0.0689
126.6131 925.3596 0.0686
128.7878 922.9853 0.0683
130.9549 920.5772 0.0680
132.7819 918.5213 0.0677
134.5667 916.5187 0.0675
136.8518 913.7877 0.0671
138.8371 911.4454 0.0668
140.9895 908.8946 0.0665
143.1582 906.3280 0.0662
145.4090 903.5595 0.0659
147.3035 901.1824 0.0656
149.0668 898.9552 0.0653
151.3660 895.8251 0.0649
153.1403 893.4454 0.0646
155.2993 890.5529 0.0642
157.3914 887.5334 0.0639
158.9272 885.1901 0.0636
160.2772 883.0246 0.0633
162.1978 879.9686 0.0629
163.9345 877.2220 0.0626
165.7120 874.4157 0.0623
167.6474 871.3495 0.0619
169.5270 868.1756 0.0615
170.9278 865.8318 0.0612
172.6924 862.8999 0.0609
174.1978 860.2988 0.0606
176.1177 856.7073 0.0601
177.2960 854.5410 0.0599
178.8168 851.7264 0.0595
180.1908 848.6891 0.0592
181.3830 845.8364 0.0588
182.5895 842.6116 0.0584
183.4839 839.3480 0.0580
184.3927 835.9705 0.0576
185.0176 833.7104 0.0573
185.8722 830.6797 0.0570
186.7427 827.5914 0.0566
187.5933 824.5672 0.0562
188.3908 821.7247 0.0559
188.9900 819.5807 0.0556
189.4629 817.8779 0.0554
189.9407 816.1550 0.0552
190.3117 814.8142 0.0550
190.6187 813.6368 0.0549
190.8373 812.5489 0.0548
191.0267 811.7584 0.0547
191.1759 810.9004 0.0546
192.8755 808.5328 0.0543
193.4718 807.5930 0.0542
194.0085 806.6069 0.0541
194.5778 805.2363 0.0539
195.1053 803.6829 0.0538
195.7348 802.0327 0.0536
196.4639 800.1745 0.0534
197.1291 798.1503 0.0531
197.8255 795.8326 0.0529
198.2130 794.0353 0.0527
198.6544 791.9938 0.0524
199.3224 789.1892 0.0521
200.0137 786.3359 0.0518
200.6887 783.5491 0.0514
201.3542 780.7533 0.0511
201.7982 778.4572 0.0508
202.4892 774.6777 0.0504
203.0638 771.3074 0.0500
203.5076 767.5451 0.0496
204.0237 763.5119 0.0491
204.4952 760.5110 0.0488
205.0606 758.9093 0.0486
205.9745 756.8566 0.0484
206.5411 754.7239 0.0481
206.7003 752.6600 0.0479
206.7449 750.2876 0.0476
206.7956 747.7213 0.0473
206.9279 745.3467 0.0470
207.0963 742.6989 0.0467
207.3774 739.7681 0.0464
207.6244 736.7993 0.0461
207.8705 733.6420 0.0457
208.2060 730.3070 0.0453
208.6541 727.2499 0.0450
208.9282 724.1730 0.0447
209.1587 721.5126 0.0444
209.4363 718.5563 0.0440
209.7546 714.4516 0.0436
210.0213 710.9639 0.0432
210.3236 706.8892 0.0428
210.5117 702.2426 0.0422
210.6600 698.6450 0.0419
210.6998 694.9410 0.0415
210.7168 690.0359 0.0409
210.7316 685.5307 0.0404
210.7523 680.7695 0.0399
210.7789 675.1938 0.0393
210.8987 670.9545 0.0389
211.1644 666.1984 0.0384
211.5028 660.1889 0.0378
211.7486 655.3088 0.0373
211.8693 648.9375 0.0366
211.9628 643.0702 0.0360
212.0509 637.7319 0.0355
212.1363 632.8317 0.0350
212.2600 625.8366 0.0343
212.3652 619.9004 0.0337
212.4901 612.9932 0.0331
212.6206 605.7189 0.0324
212.8553 598.5286 0.0317
213.1503 592.9260 0.0312
213.4910 586.6192 0.0306
213.8793 579.4546 0.0300
214.2785 571.7715 0.0293
214.4998 563.5888 0.0286
214.6623 555.8235 0.0279
214.7898 549.5047 0.0274
214.9236 543.1904 0.0268
215.1072 534.5456 0.0261
215.2784 526.4877 0.0254
215.4668 517.6083 0.0247
215.6840 508.6269 0.0240
215.9900 501.3046 0.0234
216.3036 494.2900 0.0229
216.7638 484.1926 0.0221
217.1355 475.6236 0.0215
217.3415 466.4345 0.0208
217.3766 456.6753 0.0201
217.3633 446.8285 0.0194
217.4097 439.2928 0.0189
217.6096 430.5726 0.0183
217.9141 419.9615 0.0176
218.3101 410.6323 0.0170
218.9306 399.2591 0.0163
219.4985 389.2782 0.0157
219.9719 380.1946 0.0152
220.2630 371.4340 0.0146
220.5362 360.4578 0.0140
220.7780 350.0971 0.0135
221.0152 340.0681 0.0129
221.2857 329.9511 0.0124
221.5480 322.0018 0.0120
221.7856 315.0518 0.0117
222.1475 304.8757 0.0112
222.4143 297.5245 0.0108
222.6506 290.3383 0.0105
222.9016 282.8301 0.0102
223.1730 274.8593 0.0098
223.3452 269.7748 0.0096
223.5240 264.4225 0.0094
223.7243 258.3704 0.0092
223.9047 252.7058 0.0089
224.0690 247.5021 0.0087
224.2019 243.2205 0.0086
224.3098 239.6288 0.0085
224.2639 235.2658 0.0083
223.8656 231.2449 0.0081
223.3253 226.8787 0.0080
223.1050 223.4742 0.0078
223.0952 220.2286 0.0077
223.0681 216.1853 0.0076
223.0280 212.1851 0.0074
222.9765 208.0149 0.0073
222.9412 205.0330 0.0072
222.9007 201.4277 0.0071
222.8791 197.3263 0.0070
222.9910 193.4249 0.0068
223.0779 189.7312 0.0067
223.1684 185.7304 0.0066
223.2562 181.7209 0.0065
223.3464 177.6863 0.0064
223.4455 173.2715 0.0063
223.5079 170.4912 0.0062
223.5989 166.4379 0.0061
223.8013 162.5638 0.0060
224.0596 158.0749 0.0059
224.2695 154.2648 0.0058
224.3290 150.9668 0.0057
224.4088 147.3841 0.0057
224.4844 143.3419 0.0056
224.4325 139.8892 0.0055
224.3968 136.3897 0.0054
224.4589 132.3759 0.0053
224.5941 128.6176 0.0053
224.7189 125.0065 0.0052
224.8657 120.5326 0.0051
224.9827 117.0149 0.0050
225.0995 113.5380 0.0050
225.2448 109.2106 0.0049
225.3859 105.0196 0.0048
225.5237 100.9272 0.0048
225.6543 96.2315 0.0047
225.7092 92.4986 0.0047
225.7621 88.7635 0.0046
225.8323 84.3874 0.0046
225.9006 80.0806 0.0045
225.9749 75.0853 0.0044
225.9827 70.4653 0.0044
225.7984 67.2867 0.0043
225.5737 63.6838 0.0043
225.2864 59.0470 0.0042
225.0246 54.6650 0.0042
224.7050 49.5788 0.0041
224.3399 45.8769 0.0041
223.9642 42.0086 0.0041
223.3250 37.6216 0.0040
222.3546 33.1903 0.0040
221.2149 29.0097 0.0039
219.9796 24.9712 0.0038
218.7939 21.3174 0.0038
217.6556 18.2907 0.0037
215.8391 13.7299 0.0037
214.0533 10.0084 0.0036
212.2339 6.2021 0.0035
210.5558 2.6726 0.0035
208.6735 -1.2970 0.0034
207.2390 -4.3026 0.0034
205.8981 -7.0701 0.0033
204.0777 -10.3990 0.0033
202.1395 -13.3355 0.0032
200.3050 -15.6912 0.0032
198.6723 -17.6868 0.0031
196.8126 -19.9609 0.0031
195.1570 -21.9369 0.0030
193.8157 -23.5128 0.0030
192.4693 -24.8859 0.0029
191.2145 -25.9154 0.0029
189.2920 -27.3463 0.0029
187.6901 -28.6511 0.0028
186.1411 -29.9389 0.0028
184.6491 -31.1685 0.0027
183.4638 -32.0918 0.0027
181.4878 -33.6801 0.0027
179.8600 -34.9713 0.0026
177.8248 -36.3873 0.0026
176.5054 -37.3375 0.0025
174.8926 -38.5035 0.0025
172.9139 -39.7895 0.0025
171.0577 -41.0231 0.0024
169.0459 -42.3181 0.0024
167.3124 -43.2942 0.0023
165.8400 -44.1626 0.0023
164.0127 -45.1234 0.0023
162.4679 -46.0244 0.0022
160.6114 -47.1204 0.0022
158.7342 -48.1956 0.0022
157.0203 -49.1416 0.0021
155.3592 -50.0776 0.0021
152.8626 -51.4939 0.0020
150.7779 -52.6844 0.0020
148.2819 -54.1135 0.0020
146.9317 -54.7336 0.0019
146.3181 -54.6811 0.0019
145.9893 -54.9279 0.0019
145.7404 -55.1807 0.0019
145.2421 -55.5246 0.0019
144.5631 -55.9674 0.0019
143.6271 -56.4855 0.0019
142.5869 -57.0888 0.0018
141.3369 -57.8080 0.0018
140.3480 -58.4112 0.0018
139.2762 -59.0661 0.0018
137.6277 -60.0146 0.0018
135.9698 -60.9886 0.0017
134.3457 -61.8885 0.0017
132.1137 -63.1532 0.0017
130.4867 -64.0033 0.0017
128.8182 -64.9089 0.0016
126.1756 -66.3554 0.0016
123.9600 -67.5749 0.0016
121.4632 -68.9491 0.0015
119.0102 -70.2991 0.0015
116.4897 -71.6219 0.0015
114.2539 -72.8028 0.0014
111.0797 -74.5736 0.0014
108.1604 -76.3263 0.0014
104.9922 -78.1990 0.0013
101.0936 -80.3581 0.0013
98.7917 -81.5975 0.0013
95.9186 -83.1526 0.0013
92.6736 -84.9408 0.0012
89.5012 -86.8427 0.0012
86.8147 -88.4234 0.0012
84.4036 -89.8325 0.0012
81.2685 -91.6576 0.0012
78.8082 -93.0889 0.0012
76.8290 -94.2451 0.0012
74.8262 -95.3311 0.0012
72.6463 -96.4527 0.0011
71.0640 -97.2411 0.0011
69.2166 -97.9948 0.0011
67.2618 -98.7553 0.0011
65.2696 -99.3219 0.0011
63.0781 -99.8480 0.0011
61.1379 -100.3945 0.0011
59.3780 -100.9009 0.0011
57.2299 -101.4264 0.0011
55.0780 -101.8329 0.0011
52.8690 -102.2954 0.0010
50.8767 -102.6413 0.0010
49.0272 -102.9118 0.0010
46.8019 -103.0098 0.0010
44.6147 -102.9406 0.0010
42.4723 -102.9642 0.0010
40.4224 -102.9645 0.0010
38.2537 -102.7138 0.0009
36.6372 -102.3494 0.0009
34.8884 -101.9162 0.0009
33.4094 -101.5991 0.0009
32.2029 -101.3559 0.0009
31.4205 -101.2008 0.0009
31.0455 -101.1187 0.0009
30.8463 -101.0752 0.0009
30.6655 -101.0351 0.0009
